-82.785831	28.002779	5.790864
-82.785831	28.002501	7.080864
-82.785831	28.002223	7.431939
-82.785553	28.02389	3.34259
-82.785553	28.023612	3.83259
-82.785553	28.023334	3.71259
-82.785553	28.023057	3.652591
-82.785553	28.022779	3.58259
-82.785553	28.022501	3.85259
-82.785553	28.022223	3.924294
-82.785553	28.021945	4.054295
-82.785553	28.021668	5.074295
-82.785553	28.02139	5.104294
-82.785553	28.021112	4.994295
-82.785553	28.020834	5.064294
-82.785553	28.020557	5.014295
-82.785553	28.020279	4.804295
-82.785553	28.020001	5.038555
-82.785553	28.019723	5.018555
-82.785553	28.019445	5.068555
-82.785553	28.019168	5.138556
-82.785553	28.01889	4.878555
-82.785553	28.018612	5.378555
-82.785553	28.018334	5.758555
-82.785553	28.018057	6.218555
-82.785553	28.017779	6.611394
-82.785553	28.017501	6.901394
-82.785553	28.017223	6.991394
-82.785553	28.016945	6.991394
-82.785553	28.016668	7.291394
-82.785553	28.01639	7.521394
-82.785553	28.016112	7.571394
-82.785553	28.015834	7.661394
-82.785553	28.015557	7.958884
-82.785553	28.015279	8.028884
-82.785553	28.015001	8.158884
-82.785553	28.014723	7.968884
-82.785553	28.014445	7.718884
-82.785553	28.014168	7.148884
-82.785553	28.01389	6.098884
-82.785553	28.013612	5.238884
-82.785553	28.013334	5.235399
-82.785553	28.013057	4.895399
-82.785553	28.012779	4.865399
-82.785553	28.012501	5.215399
-82.785553	28.012223	5.685399
-82.785553	28.011945	6.495399
-82.785553	28.011668	7.195399
-82.785553	28.01139	7.925399
-82.785553	28.011112	8.323965
-82.785553	28.010834	8.343965
-82.785553	28.010557	8.143965
-82.785553	28.010279	7.993965
-82.785553	28.010001	8.123964
-82.785553	28.009723	8.223965
-82.785553	28.009445	8.213964
-82.785553	28.009168	7.863965
-82.785553	28.00889	7.707888
-82.785553	28.008612	7.527887
-82.785553	28.008334	7.257887
-82.785553	28.008057	7.017888
-82.785553	28.007779	6.867887
-82.785553	28.007501	7.007887
-82.785553	28.007223	6.957888
-82.785553	28.006945	6.767888
-82.785553	28.006668	6.536576
-82.785553	28.00639	6.516576
-82.785553	28.006112	6.796576
-82.785553	28.005834	7.236576
-82.785553	28.005557	7.136576
-82.785553	28.005279	6.696576
-82.785553	28.005001	6.686576
-82.785553	28.004723	6.686576
-82.785553	28.004445	6.470864
-82.785553	28.004168	6.470864
-82.785553	28.00389	6.700864
-82.785553	28.003612	6.890864
-82.785553	28.003334	6.890864
-82.785553	28.003057	6.980864
-82.785553	28.002779	7.050864
-82.785553	28.002501	7.470864
-82.785553	28.002223	7.511939
-82.785275	28.02389	3.63259
-82.785275	28.023612	3.86259
-82.785275	28.023334	3.902591
-82.785275	28.023057	4.022591
-82.785275	28.022779	4.05259
-82.785275	28.022501	4.272591
-82.785275	28.022223	4.684294
-82.785275	28.021945	4.924294
-82.785275	28.021668	5.304295
-82.785275	28.02139	5.574295
-82.785275	28.021112	5.684294
-82.785275	28.020834	5.654294
-82.785275	28.020557	5.564294
-82.785275	28.020279	5.514295
-82.785275	28.020001	5.268555
-82.785275	28.019723	5.378555
-82.785275	28.019445	5.598555
-82.785275	28.019168	5.698555
-82.785275	28.01889	5.528555
-82.785275	28.018612	5.658556
-82.785275	28.018334	5.868555
-82.785275	28.018057	6.198555
-82.785275	28.017779	6.681394
-82.785275	28.017501	6.881394
-82.785275	28.017223	6.881394
-82.785275	28.016945	6.761394
-82.785275	28.016668	6.821394
-82.785275	28.01639	7.151394
-82.785275	28.016112	7.341394
-82.785275	28.015834	6.991394
-82.785275	28.015557	7.848884
-82.785275	28.015279	7.828884
-82.785275	28.015001	7.628884
-82.785275	28.014723	7.288884
-82.785275	28.014445	7.148884
-82.785275	28.014168	6.758884
-82.785275	28.01389	5.768884
-82.785275	28.013612	5.098884
-82.785275	28.013334	5.115399
-82.785275	28.013057	4.875399
-82.785275	28.012779	5.165399
-82.785275	28.012501	5.785399
-82.785275	28.012223	6.295399
-82.785275	28.011945	6.795399
-82.785275	28.011668	7.815399
-82.785275	28.01139	8.225399
-82.785275	28.011112	8.393965
-82.785275	28.010834	8.503964
-82.785275	28.010557	8.263965
-82.785275	28.010279	8.053965
-82.785275	28.010001	8.173965
-82.785275	28.009723	8.503964
-82.785275	28.009445	8.333964
-82.785275	28.009168	8.023965
-82.785275	28.00889	7.817888
-82.785275	28.008612	7.707888
-82.785275	28.008334	7.447887
-82.785275	28.008057	7.347888
-82.785275	28.007779	7.247888
-82.785275	28.007501	7.197887
-82.785275	28.007223	7.017888
-82.785275	28.006945	6.767888
-82.785275	28.006668	6.636576
-82.785275	28.00639	6.776576
-82.785275	28.006112	7.186576
-82.785275	28.005834	7.696576
-82.785275	28.005557	7.316576
-82.785275	28.005279	6.706576
-82.785275	28.005001	6.556576
-82.785275	28.004723	6.716576
-82.785275	28.004445	6.510864
-82.785275	28.004168	6.500864
-82.785275	28.00389	6.680864
-82.785275	28.003612	7.050864
-82.785275	28.003334	7.150864
-82.785275	28.003057	7.250864
-82.785275	28.002779	7.280864
-82.785275	28.002501	7.700864
-82.785275	28.002223	7.721939
-82.784998	28.02389	4.162591
-82.784998	28.023612	4.26259
-82.784998	28.023334	4.122591
-82.784998	28.023057	4.26259
-82.784998	28.022779	4.32259
-82.784998	28.022501	4.67259
-82.784998	28.022223	5.344295
-82.784998	28.021945	5.234294
-82.784998	28.021668	5.524294
-82.784998	28.02139	5.814294
-82.784998	28.021112	6.144294
-82.784998	28.020834	6.484294
-82.784998	28.020557	5.964294
-82.784998	28.020279	5.844295
-82.784998	28.020001	5.408556
-82.784998	28.019723	5.558555
-82.784998	28.019445	5.638556
-82.784998	28.019168	5.488555
-82.784998	28.01889	5.608555
-82.784998	28.018612	5.628555
-82.784998	28.018334	5.538555
-82.784998	28.018057	5.628555
-82.784998	28.017779	6.131394
-82.784998	28.017501	6.451394
-82.784998	28.017223	6.511394
-82.784998	28.016945	6.261394
-82.784998	28.016668	6.211394
-82.784998	28.01639	6.401394
-82.784998	28.016112	6.851394
-82.784998	28.015834	7.271394
-82.784998	28.015557	7.838884
-82.784998	28.015279	7.638884
-82.784998	28.015001	7.158884
-82.784998	28.014723	6.858884
-82.784998	28.014445	6.708884
-82.784998	28.014168	6.258884
-82.784998	28.01389	5.578884
-82.784998	28.013612	5.308884
-82.784998	28.013334	5.055399
-82.784998	28.013057	5.075399
-82.784998	28.012779	5.615399
-82.784998	28.012501	6.245399
-82.784998	28.012223	6.745399
-82.784998	28.011945	7.265399
-82.784998	28.011668	8.035398
-82.784998	28.01139	8.225399
-82.784998	28.011112	8.283964
-82.784998	28.010834	8.453964
-82.784998	28.010557	8.453964
-82.784998	28.010279	8.393965
-82.784998	28.010001	8.603965
-82.784998	28.009723	8.893965
-82.784998	28.009445	8.753964
-82.784998	28.009168	8.383965
-82.784998	28.00889	7.987887
-82.784998	28.008612	7.767888
-82.784998	28.008334	7.557888
-82.784998	28.008057	7.447887
-82.784998	28.007779	7.427887
-82.784998	28.007501	7.217887
-82.784998	28.007223	7.107888
-82.784998	28.006945	6.857888
-82.784998	28.006668	6.886576
-82.784998	28.00639	7.076576
-82.784998	28.006112	7.406576
-82.784998	28.005834	7.856575
-82.784998	28.005557	7.706576
-82.784998	28.005279	6.946576
-82.784998	28.005001	6.566576
-82.784998	28.004723	6.416576
-82.784998	28.004445	6.490864
-82.784998	28.004168	6.500864
-82.784998	28.00389	6.590864
-82.784998	28.003612	7.220864
-82.784998	28.003334	7.230864
-82.784998	28.003057	7.350864
-82.784998	28.002779	7.360864
-82.784998	28.002501	8.000864
-82.784998	28.002223	8.001939
-82.78472	28.02389	4.26259
-82.78472	28.023612	4.55259
-82.78472	28.023334	4.352591
-82.78472	28.023057	4.312591
-82.78472	28.022779	4.272591
-82.78472	28.022501	4.44259
-82.78472	28.022223	5.004294
-82.78472	28.021945	5.354294
-82.78472	28.021668	5.894294
-82.78472	28.02139	6.204294
-82.78472	28.021112	6.184294
-82.78472	28.020834	6.894294
-82.78472	28.020557	6.344295
-82.78472	28.020279	6.004294
-82.78472	28.020001	5.438555
-82.78472	28.019723	5.588555
-82.78472	28.019445	5.338555
-82.78472	28.019168	5.248555
-82.78472	28.01889	5.398555
-82.78472	28.018612	5.578555
-82.78472	28.018334	5.208555
-82.78472	28.018057	5.178555
-82.78472	28.017779	5.561394
-82.78472	28.017501	5.871394
-82.78472	28.017223	5.601394
-82.78472	28.016945	5.521394
-82.78472	28.016668	5.531394
-82.78472	28.01639	5.741394
-82.78472	28.016112	6.401394
-82.78472	28.015834	6.911394
-82.78472	28.015557	7.498884
-82.78472	28.015279	7.578884
-82.78472	28.015001	7.288884
-82.78472	28.014723	6.978884
-82.78472	28.014445	6.818884
-82.78472	28.014168	6.648884
-82.78472	28.01389	6.148884
-82.78472	28.013612	5.718884
-82.78472	28.013334	5.375399
-82.78472	28.013057	5.845399
-82.78472	28.012779	6.235399
-82.78472	28.012501	6.835399
-82.78472	28.012223	7.395399
-82.78472	28.011945	7.965399
-82.78472	28.011668	8.505399
-82.78472	28.01139	8.615399
-82.78472	28.011112	8.553965
-82.78472	28.010834	8.793964
-82.78472	28.010557	8.773965
-82.78472	28.010279	8.813965
-82.78472	28.010001	8.973965
-82.78472	28.009723	9.143965
-82.78472	28.009445	8.883965
-82.78472	28.009168	8.553965
-82.78472	28.00889	8.157887
-82.78472	28.008612	7.827888
-82.78472	28.008334	7.707888
-82.78472	28.008057	7.667888
-82.78472	28.007779	7.577888
-82.78472	28.007501	7.367887
-82.78472	28.007223	7.217887
-82.78472	28.006945	7.127888
-82.78472	28.006668	7.086576
-82.78472	28.00639	7.146575
-82.78472	28.006112	7.396575
-82.78472	28.005834	8.016576
-82.78472	28.005557	8.136576
-82.78472	28.005279	7.506576
-82.78472	28.005001	6.796576
-82.78472	28.004723	6.546576
-82.78472	28.004445	6.500864
-82.78472	28.004168	6.540864
-82.78472	28.00389	6.620864
-82.78472	28.003612	6.880864
-82.78472	28.003334	7.140864
-82.78472	28.003057	7.430864
-82.78472	28.002779	7.660864
-82.78472	28.002501	8.340864
-82.78472	28.002223	8.221939
-82.784442	28.02389	4.005995
-82.784442	28.023612	4.105995
-82.784442	28.023334	4.305995
-82.784442	28.023057	4.505995
-82.784442	28.022779	4.715995
-82.784442	28.022501	5.135995
-82.784442	28.022223	5.457358
-82.784442	28.021945	5.547358
-82.784442	28.021668	5.987358
-82.784442	28.02139	6.307358
-82.784442	28.021112	6.227358
-82.784442	28.020834	6.557358
-82.784442	28.020557	6.507358
-82.784442	28.020279	6.227358
-82.784442	28.020001	5.440928
-82.784442	28.019723	5.290928
-82.784442	28.019445	5.100929
-82.784442	28.019168	4.870929
-82.784442	28.01889	5.100929
-82.784442	28.018612	5.620929
-82.784442	28.018334	5.240929
-82.784442	28.018057	5.210928
-82.784442	28.017779	5.382073
-82.784442	28.017501	5.412073
-82.784442	28.017223	4.882073
-82.784442	28.016945	4.682073
-82.784442	28.016668	4.932073
-82.784442	28.01639	5.542073
-82.784442	28.016112	6.282073
-82.784442	28.015834	6.602073
-82.784442	28.015557	7.295244
-82.784442	28.015279	7.635243
-82.784442	28.015001	7.735244
-82.784442	28.014723	7.585244
-82.784442	28.014445	7.355244
-82.784442	28.014168	7.605244
-82.784442	28.01389	7.025244
-82.784442	28.013612	6.455244
-82.784442	28.013334	6.628867
-82.784442	28.013057	6.898867
-82.784442	28.012779	7.728867
-82.784442	28.012501	7.988867
-82.784442	28.012223	8.248867
-82.784442	28.011945	8.848867
-82.784442	28.011668	9.498867
-82.784442	28.01139	9.448867
-82.784442	28.011112	9.12182
-82.784442	28.010834	9.15182
-82.784442	28.010557	9.08182
-82.784442	28.010279	9.15182
-82.784442	28.010001	9.02182
-82.784442	28.009723	9.041821
-82.784442	28.009445	8.971821
-82.784442	28.009168	8.64182
-82.784442	28.00889	8.205775
-82.784442	28.008612	7.855775
-82.784442	28.008334	7.795775
-82.784442	28.008057	7.855775
-82.784442	28.007779	7.785776
-82.784442	28.007501	7.585775
-82.784442	28.007223	7.435775
-82.784442	28.006945	7.235775
-82.784442	28.006668	7.322505
-82.784442	28.00639	7.372505
-82.784442	28.006112	7.532505
-82.784442	28.005834	8.242505
-82.784442	28.005557	8.642506
-82.784442	28.005279	8.582505
-82.784442	28.005001	7.812505
-82.784442	28.004723	7.392505
-82.784442	28.004445	6.966332
-82.784442	28.004168	6.796333
-82.784442	28.00389	6.766333
-82.784442	28.003612	6.816333
-82.784442	28.003334	7.206333
-82.784442	28.003057	7.456333
-82.784442	28.002779	8.086332
-82.784442	28.002501	8.766333
-82.784442	28.002223	8.573206
-82.784164	28.02389	4.595995
-82.784164	28.023612	4.525995
-82.784164	28.023334	4.565995
-82.784164	28.023057	4.655995
-82.784164	28.022779	4.775995
-82.784164	28.022501	5.075995
-82.784164	28.022223	5.297358
-82.784164	28.021945	5.527358
-82.784164	28.021668	5.837358
-82.784164	28.02139	6.327358
-82.784164	28.021112	6.427358
-82.784164	28.020834	6.507358
-82.784164	28.020557	6.477358
-82.784164	28.020279	6.127358
-82.784164	28.020001	5.460928
-82.784164	28.019723	5.050929
-82.784164	28.019445	4.880929
-82.784164	28.019168	4.590929
-82.784164	28.01889	4.790928
-82.784164	28.018612	5.020928
-82.784164	28.018334	5.110929
-82.784164	28.018057	5.350929
-82.784164	28.017779	5.662073
-82.784164	28.017501	5.902073
-82.784164	28.017223	5.472073
-82.784164	28.016945	5.032073
-82.784164	28.016668	5.162073
-82.784164	28.01639	5.912073
-82.784164	28.016112	6.512073
-82.784164	28.015834	7.002073
-82.784164	28.015557	7.885243
-82.784164	28.015279	8.435244
-82.784164	28.015001	8.455244
-82.784164	28.014723	8.185244
-82.784164	28.014445	8.115244
-82.784164	28.014168	8.245244
-82.784164	28.01389	7.775244
-82.784164	28.013612	7.885243
-82.784164	28.013334	7.798867
-82.784164	28.013057	7.958867
-82.784164	28.012779	8.738867
-82.784164	28.012501	9.168867
-82.784164	28.012223	9.448867
-82.784164	28.011945	10.188868
-82.784164	28.011668	10.308867
-82.784164	28.01139	10.188868
-82.784164	28.011112	9.95182
-82.784164	28.010834	9.65182
-82.784164	28.010557	9.40182
-82.784164	28.010279	9.48182
-82.784164	28.010001	9.10182
-82.784164	28.009723	9.02182
-82.784164	28.009445	9.11182
-82.784164	28.009168	8.721821
-82.784164	28.00889	8.245775
-82.784164	28.008612	7.995776
-82.784164	28.008334	7.895775
-82.784164	28.008057	7.965775
-82.784164	28.007779	7.945776
-82.784164	28.007501	7.895775
-82.784164	28.007223	7.785776
-82.784164	28.006945	7.625775
-82.784164	28.006668	7.432505
-82.784164	28.00639	7.502505
-82.784164	28.006112	7.592505
-82.784164	28.005834	8.002505
-82.784164	28.005557	8.712505
-82.784164	28.005279	9.382505
-82.784164	28.005001	8.882505
-82.784164	28.004723	8.412505
-82.784164	28.004445	7.266333
-82.784164	28.004168	6.966332
-82.784164	28.00389	6.966332
-82.784164	28.003612	7.196332
-82.784164	28.003334	7.466332
-82.784164	28.003057	7.856333
-82.784164	28.002779	8.646333
-82.784164	28.002501	9.186333
-82.784164	28.002223	9.103206
-82.783887	28.02389	4.935995
-82.783887	28.023612	4.885995
-82.783887	28.023334	4.745995
-82.783887	28.023057	4.835995
-82.783887	28.022779	4.925995
-82.783887	28.022501	4.875995
-82.783887	28.022223	5.037358
-82.783887	28.021945	5.597358
-82.783887	28.021668	5.937358
-82.783887	28.02139	6.337358
-82.783887	28.021112	6.647358
-82.783887	28.020834	6.467358
-82.783887	28.020557	6.557358
-82.783887	28.020279	6.217358
-82.783887	28.020001	5.630929
-82.783887	28.019723	5.420928
-82.783887	28.019445	5.650928
-82.783887	28.019168	5.370929
-82.783887	28.01889	5.190928
-82.783887	28.018612	5.220929
-82.783887	28.018334	5.420928
-82.783887	28.018057	5.550929
-82.783887	28.017779	5.882073
-82.783887	28.017501	6.222073
-82.783887	28.017223	6.072073
-82.783887	28.016945	6.132073
-82.783887	28.016668	6.312073
-82.783887	28.01639	6.762073
-82.783887	28.016112	7.282073
-82.783887	28.015834	7.922073
-82.783887	28.015557	8.925243
-82.783887	28.015279	9.165243
-82.783887	28.015001	9.115244
-82.783887	28.014723	8.715243
-82.783887	28.014445	8.655244
-82.783887	28.014168	8.735244
-82.783887	28.01389	8.735244
-82.783887	28.013612	8.755243
-82.783887	28.013334	8.778867
-82.783887	28.013057	9.068867
-82.783887	28.012779	9.558867
-82.783887	28.012501	9.838867
-82.783887	28.012223	10.138867
-82.783887	28.011945	10.458867
-82.783887	28.011668	10.568867
-82.783887	28.01139	10.458867
-82.783887	28.011112	10.18182
-82.783887	28.010834	9.90182
-82.783887	28.010557	9.60182
-82.783887	28.010279	9.471821
-82.783887	28.010001	9.261821
-82.783887	28.009723	9.10182
-82.783887	28.009445	8.961821
-82.783887	28.009168	8.631821
-82.783887	28.00889	8.245775
-82.783887	28.008612	8.035775
-82.783887	28.008334	7.965775
-82.783887	28.008057	7.925776
-82.783887	28.007779	7.835775
-82.783887	28.007501	7.805776
-82.783887	28.007223	7.755775
-82.783887	28.006945	7.585775
-82.783887	28.006668	7.352505
-82.783887	28.00639	7.412505
-82.783887	28.006112	7.492505
-82.783887	28.005834	7.692505
-82.783887	28.005557	8.012506
-82.783887	28.005279	8.442505
-82.783887	28.005001	8.712505
-82.783887	28.004723	8.172505
-82.783887	28.004445	7.466332
-82.783887	28.004168	7.416333
-82.783887	28.00389	7.696332
-82.783887	28.003612	7.986332
-82.783887	28.003334	8.186333
-82.783887	28.003057	8.536333
-82.783887	28.002779	8.946333
-82.783887	28.002501	9.256332
-82.783887	28.002223	9.293205
-82.783609	28.02389	4.765995
-82.783609	28.023612	5.145995
-82.783609	28.023334	5.055995
-82.783609	28.023057	5.105995
-82.783609	28.022779	5.105995
-82.783609	28.022501	5.105995
-82.783609	28.022223	5.057358
-82.783609	28.021945	5.607358
-82.783609	28.021668	5.997358
-82.783609	28.02139	6.457358
-82.783609	28.021112	6.797358
-82.783609	28.020834	6.517358
-82.783609	28.020557	6.687358
-82.783609	28.020279	6.687358
-82.783609	28.020001	6.230928
-82.783609	28.019723	6.290928
-82.783609	28.019445	6.600929
-82.783609	28.019168	6.170928
-82.783609	28.01889	6.060928
-82.783609	28.018612	5.700929
-82.783609	28.018334	5.830928
-82.783609	28.018057	5.980928
-82.783609	28.017779	6.142073
-82.783609	28.017501	6.592073
-82.783609	28.017223	6.712073
-82.783609	28.016945	6.742073
-82.783609	28.016668	6.802073
-82.783609	28.01639	7.272073
-82.783609	28.016112	8.012074
-82.783609	28.015834	8.592073
-82.783609	28.015557	9.175243
-82.783609	28.015279	9.265244
-82.783609	28.015001	9.345243
-82.783609	28.014723	9.185244
-82.783609	28.014445	9.035244
-82.783609	28.014168	9.165243
-82.783609	28.01389	9.235244
-82.783609	28.013612	9.525244
-82.783609	28.013334	9.948867
-82.783609	28.013057	9.858867
-82.783609	28.012779	10.218867
-82.783609	28.012501	10.468867
-82.783609	28.012223	10.428867
-82.783609	28.011945	10.508867
-82.783609	28.011668	10.568867
-82.783609	28.01139	10.468867
-82.783609	28.011112	10.221821
-82.783609	28.010834	10.12182
-82.783609	28.010557	9.58182
-82.783609	28.010279	9.461821
-82.783609	28.010001	9.28182
-82.783609	28.009723	9.341821
-82.783609	28.009445	9.33182
-82.783609	28.009168	8.921821
-82.783609	28.00889	8.355776
-82.783609	28.008612	8.095776
-82.783609	28.008334	7.985775
-82.783609	28.008057	8.055776
-82.783609	28.007779	7.935775
-82.783609	28.007501	7.835775
-82.783609	28.007223	7.915775
-82.783609	28.006945	7.705775
-82.783609	28.006668	7.462505
-82.783609	28.00639	7.432505
-82.783609	28.006112	7.512505
-82.783609	28.005834	7.752505
-82.783609	28.005557	7.962505
-82.783609	28.005279	8.292505
-82.783609	28.005001	8.352505
-82.783609	28.004723	8.112505
-82.783609	28.004445	8.026333
-82.783609	28.004168	8.546332
-82.783609	28.00389	9.006332
-82.783609	28.003612	9.066333
-82.783609	28.003334	8.586332
-82.783609	28.003057	8.726333
-82.783609	28.002779	8.826333
-82.783609	28.002501	8.826333
-82.783609	28.002223	9.063206
-82.783331	28.02389	5.165995
-82.783331	28.023612	5.445995
-82.783331	28.023334	5.305995
-82.783331	28.023057	5.325995
-82.783331	28.022779	5.145995
-82.783331	28.022501	5.075995
-82.783331	28.022223	5.077358
-82.783331	28.021945	5.507358
-82.783331	28.021668	6.027358
-82.783331	28.02139	6.547358
-82.783331	28.021112	6.757358
-82.783331	28.020834	6.657358
-82.783331	28.020557	6.867358
-82.783331	28.020279	7.267358
-82.783331	28.020001	7.250928
-82.783331	28.019723	7.480928
-82.783331	28.019445	7.320929
-82.783331	28.019168	7.170928
-82.783331	28.01889	7.090929
-82.783331	28.018612	6.870929
-82.783331	28.018334	6.500928
-82.783331	28.018057	6.510929
-82.783331	28.017779	6.842073
-82.783331	28.017501	7.202073
-82.783331	28.017223	7.392073
-82.783331	28.016945	7.352073
-82.783331	28.016668	7.362073
-82.783331	28.01639	7.772073
-82.783331	28.016112	8.442073
-82.783331	28.015834	8.762074
-82.783331	28.015557	9.085243
-82.783331	28.015279	9.265244
-82.783331	28.015001	9.285244
-82.783331	28.014723	9.315244
-82.783331	28.014445	9.445244
-82.783331	28.014168	9.745244
-82.783331	28.01389	10.285244
-82.783331	28.013612	10.295243
-82.783331	28.013334	10.298867
-82.783331	28.013057	10.118867
-82.783331	28.012779	10.358867
-82.783331	28.012501	10.908867
-82.783331	28.012223	10.858867
-82.783331	28.011945	10.628867
-82.783331	28.011668	10.298867
-82.783331	28.01139	10.068867
-82.783331	28.011112	9.551821
-82.783331	28.010834	9.44182
-82.783331	28.010557	9.221821
-82.783331	28.010279	9.06182
-82.783331	28.010001	8.87182
-82.783331	28.009723	9.15182
-82.783331	28.009445	9.18182
-82.783331	28.009168	8.971821
-82.783331	28.00889	8.495775
-82.783331	28.008612	8.275776
-82.783331	28.008334	7.955775
-82.783331	28.008057	8.105776
-82.783331	28.007779	8.005775
-82.783331	28.007501	7.785776
-82.783331	28.007223	7.935775
-82.783331	28.006945	7.675776
-82.783331	28.006668	7.312505
-82.783331	28.00639	7.432505
-82.783331	28.006112	7.462505
-82.783331	28.005834	7.592505
-82.783331	28.005557	7.672505
-82.783331	28.005279	8.112505
-82.783331	28.005001	8.122505
-82.783331	28.004723	8.222506
-82.783331	28.004445	8.406333
-82.783331	28.004168	8.946333
-82.783331	28.00389	9.256332
-82.783331	28.003612	9.226333
-82.783331	28.003334	8.406333
-82.783331	28.003057	8.456332
-82.783331	28.002779	8.556333
-82.783331	28.002501	8.116333
-82.783331	28.002223	8.403206
-82.783053	28.02389	5.105995
-82.783053	28.023612	5.475995
-82.783053	28.023334	5.445995
-82.783053	28.023057	5.615995
-82.783053	28.022779	5.405995
-82.783053	28.022501	5.265995
-82.783053	28.022223	5.367358
-82.783053	28.021945	5.937358
-82.783053	28.021668	6.327358
-82.783053	28.02139	6.717358
-82.783053	28.021112	6.947358
-82.783053	28.020834	6.877358
-82.783053	28.020557	7.307358
-82.783053	28.020279	7.737358
-82.783053	28.020001	7.950929
-82.783053	28.019723	8.420929
-82.783053	28.019445	8.520928
-82.783053	28.019168	8.300928
-82.783053	28.01889	8.070929
-82.783053	28.018612	7.730928
-82.783053	28.018334	7.410929
-82.783053	28.018057	7.490929
-82.783053	28.017779	7.592073
-82.783053	28.017501	8.072073
-82.783053	28.017223	7.982073
-82.783053	28.016945	7.692073
-82.783053	28.016668	7.722073
-82.783053	28.01639	8.272073
-82.783053	28.016112	8.832073
-82.783053	28.015834	9.342073
-82.783053	28.015557	9.445244
-82.783053	28.015279	9.525244
-82.783053	28.015001	9.565244
-82.783053	28.014723	9.555243
-82.783053	28.014445	9.735244
-82.783053	28.014168	10.395244
-82.783053	28.01389	10.365244
-82.783053	28.013612	10.395244
-82.783053	28.013334	10.338867
-82.783053	28.013057	10.178867
-82.783053	28.012779	10.508867
-82.783053	28.012501	11.528867
-82.783053	28.012223	11.348867
-82.783053	28.011945	11.138867
-82.783053	28.011668	10.638867
-82.783053	28.01139	10.028867
-82.783053	28.011112	9.341821
-82.783053	28.010834	8.94182
-82.783053	28.010557	8.73182
-82.783053	28.010279	8.551821
-82.783053	28.010001	8.31182
-82.783053	28.009723	8.45182
-82.783053	28.009445	8.70182
-82.783053	28.009168	8.64182
-82.783053	28.00889	8.395776
-82.783053	28.008612	8.295775
-82.783053	28.008334	7.905776
-82.783053	28.008057	8.175776
-82.783053	28.007779	8.005775
-82.783053	28.007501	7.765776
-82.783053	28.007223	7.975775
-82.783053	28.006945	7.615776
-82.783053	28.006668	7.272505
-82.783053	28.00639	7.422505
-82.783053	28.006112	7.142505
-82.783053	28.005834	7.452505
-82.783053	28.005557	7.402505
-82.783053	28.005279	7.822505
-82.783053	28.005001	7.972505
-82.783053	28.004723	8.072505
-82.783053	28.004445	8.236333
-82.783053	28.004168	8.536333
-82.783053	28.00389	8.936333
-82.783053	28.003612	8.786333
-82.783053	28.003334	7.856333
-82.783053	28.003057	7.696332
-82.783053	28.002779	7.556333
-82.783053	28.002501	7.316333
-82.783053	28.002223	7.623206
-82.782775	28.02389	4.905995
-82.782775	28.023612	5.505995
-82.782775	28.023334	5.535995
-82.782775	28.023057	5.615995
-82.782775	28.022779	5.505995
-82.782775	28.022501	5.595995
-82.782775	28.022223	5.837358
-82.782775	28.021945	6.527358
-82.782775	28.021668	6.807358
-82.782775	28.02139	6.887358
-82.782775	28.021112	7.087358
-82.782775	28.020834	7.117358
-82.782775	28.020557	7.597358
-82.782775	28.020279	8.007358
-82.782775	28.020001	8.520928
-82.782775	28.019723	9.120929
-82.782775	28.019445	9.160929
-82.782775	28.019168	9.280929
-82.782775	28.01889	9.270928
-82.782775	28.018612	9.190928
-82.782775	28.018334	8.960929
-82.782775	28.018057	8.760928
-82.782775	28.017779	8.412073
-82.782775	28.017501	8.882073
-82.782775	28.017223	8.862073
-82.782775	28.016945	8.462073
-82.782775	28.016668	8.142073
-82.782775	28.01639	8.612073
-82.782775	28.016112	9.312073
-82.782775	28.015834	9.852073
-82.782775	28.015557	10.005243
-82.782775	28.015279	9.845243
-82.782775	28.015001	9.685244
-82.782775	28.014723	9.755243
-82.782775	28.014445	10.015244
-82.782775	28.014168	10.435244
-82.782775	28.01389	10.345243
-82.782775	28.013612	10.375243
-82.782775	28.013334	10.368867
-82.782775	28.013057	10.158867
-82.782775	28.012779	10.648868
-82.782775	28.012501	11.778867
-82.782775	28.012223	11.818867
-82.782775	28.011945	11.608867
-82.782775	28.011668	11.268867
-82.782775	28.01139	10.598867
-82.782775	28.011112	10.051821
-82.782775	28.010834	9.511821
-82.782775	28.010557	8.58182
-82.782775	28.010279	8.08182
-82.782775	28.010001	7.751821
-82.782775	28.009723	7.74182
-82.782775	28.009445	7.85182
-82.782775	28.009168	7.87182
-82.782775	28.00889	7.915775
-82.782775	28.008612	8.045775
-82.782775	28.008334	7.775775
-82.782775	28.008057	8.135776
-82.782775	28.007779	8.145776
-82.782775	28.007501	7.675776
-82.782775	28.007223	7.865776
-82.782775	28.006945	7.545775
-82.782775	28.006668	7.222505
-82.782775	28.00639	7.412505
-82.782775	28.006112	7.002505
-82.782775	28.005834	7.252505
-82.782775	28.005557	7.262505
-82.782775	28.005279	7.492505
-82.782775	28.005001	7.672505
-82.782775	28.004723	7.732505
-82.782775	28.004445	7.916333
-82.782775	28.004168	8.316333
-82.782775	28.00389	8.366333
-82.782775	28.003612	8.206332
-82.782775	28.003334	7.146333
-82.782775	28.003057	6.686333
-82.782775	28.002779	6.686333
-82.782775	28.002501	6.736332
-82.782775	28.002223	6.903206
-82.782498	28.02389	5.245995
-82.782498	28.023612	5.395995
-82.782498	28.023334	5.485995
-82.782498	28.023057	5.715995
-82.782498	28.022779	5.755995
-82.782498	28.022501	5.995995
-82.782498	28.022223	6.227358
-82.782498	28.021945	6.967358
-82.782498	28.021668	7.157358
-82.782498	28.02139	7.237358
-82.782498	28.021112	7.267358
-82.782498	28.020834	7.137358
-82.782498	28.020557	7.487358
-82.782498	28.020279	7.787358
-82.782498	28.020001	8.700929
-82.782498	28.019723	9.710929
-82.782498	28.019445	9.820929
-82.782498	28.019168	9.650928
-82.782498	28.01889	10.010928
-82.782498	28.018612	9.650928
-82.782498	28.018334	9.680928
-82.782498	28.018057	9.800928
-82.782498	28.017779	9.222074
-82.782498	28.017501	9.792073
-82.782498	28.017223	9.832073
-82.782498	28.016945	9.292073
-82.782498	28.016668	8.952073
-82.782498	28.01639	9.122073
-82.782498	28.016112	9.582073
-82.782498	28.015834	10.012074
-82.782498	28.015557	10.155244
-82.782498	28.015279	9.985244
-82.782498	28.015001	9.925243
-82.782498	28.014723	10.135243
-82.782498	28.014445	10.175243
-82.782498	28.014168	10.325244
-82.782498	28.01389	10.245244
-82.782498	28.013612	10.345243
-82.782498	28.013334	10.478868
-82.782498	28.013057	11.208867
-82.782498	28.012779	12.238867
-82.782498	28.012501	12.808867
-82.782498	28.012223	12.018867
-82.782498	28.011945	11.998867
-82.782498	28.011668	11.778867
-82.782498	28.01139	11.268867
-82.782498	28.011112	11.051821
-82.782498	28.010834	10.261821
-82.782498	28.010557	8.85182
-82.782498	28.010279	8.12182
-82.782498	28.010001	7.59182
-82.782498	28.009723	7.35182
-82.782498	28.009445	7.20182
-82.782498	28.009168	7.24182
-82.782498	28.00889	7.525775
-82.782498	28.008612	7.775775
-82.782498	28.008334	7.555776
-82.782498	28.008057	7.905776
-82.782498	28.007779	7.895775
-82.782498	28.007501	7.445776
-82.782498	28.007223	7.705775
-82.782498	28.006945	7.375775
-82.782498	28.006668	7.152505
-82.782498	28.00639	7.462505
-82.782498	28.006112	6.852505
-82.782498	28.005834	7.152505
-82.782498	28.005557	7.112505
-82.782498	28.005279	7.302505
-82.782498	28.005001	7.372505
-82.782498	28.004723	7.402505
-82.782498	28.004445	7.306333
-82.782498	28.004168	7.386333
-82.782498	28.00389	7.316333
-82.782498	28.003612	7.176332
-82.782498	28.003334	6.336333
-82.782498	28.003057	6.266333
-82.782498	28.002779	6.336333
-82.782498	28.002501	6.376333
-82.782498	28.002223	6.673206
-82.78222	28.02389	5.2743
-82.78222	28.023612	5.4643
-82.78222	28.023334	5.5543
-82.78222	28.023057	5.6543
-82.78222	28.022779	6.0443
-82.78222	28.022501	6.4443
-82.78222	28.022223	6.494244
-82.78222	28.021945	7.124244
-82.78222	28.021668	7.314244
-82.78222	28.02139	7.364244
-82.78222	28.021112	7.374244
-82.78222	28.020834	7.104244
-82.78222	28.020557	7.174244
-82.78222	28.020279	7.854244
-82.78222	28.020001	9.178839
-82.78222	28.019723	9.948838
-82.78222	28.019445	10.298839
-82.78222	28.019168	10.198838
-82.78222	28.01889	10.418839
-82.78222	28.018612	10.118838
-82.78222	28.018334	9.888839
-82.78222	28.018057	10.128839
-82.78222	28.017779	10.454384
-82.78222	28.017501	10.734384
-82.78222	28.017223	10.604383
-82.78222	28.016945	9.974384
-82.78222	28.016668	9.504384
-82.78222	28.01639	9.414384
-82.78222	28.016112	9.624384
-82.78222	28.015834	9.954384
-82.78222	28.015557	10.536592
-82.78222	28.015279	10.416592
-82.78222	28.015001	10.346592
-82.78222	28.014723	10.436591
-82.78222	28.014445	10.386592
-82.78222	28.014168	10.396591
-82.78222	28.01389	10.346592
-82.78222	28.013612	10.636592
-82.78222	28.013334	10.910277
-82.78222	28.013057	11.700277
-82.78222	28.012779	12.860278
-82.78222	28.012501	12.720278
-82.78222	28.012223	12.180278
-82.78222	28.011945	12.170278
-82.78222	28.011668	12.060278
-82.78222	28.01139	11.590278
-82.78222	28.011112	11.4766
-82.78222	28.010834	10.8166
-82.78222	28.010557	9.0266
-82.78222	28.010279	8.216599
-82.78222	28.010001	7.7666
-82.78222	28.009723	7.2966
-82.78222	28.009445	7.0166
-82.78222	28.009168	6.8766
-82.78222	28.00889	7.215137
-82.78222	28.008612	7.485137
-82.78222	28.008334	7.215137
-82.78222	28.008057	7.345137
-82.78222	28.007779	7.305137
-82.78222	28.007501	7.035137
-82.78222	28.007223	7.275137
-82.78222	28.006945	6.945137
-82.78222	28.006668	6.879592
-82.78222	28.00639	7.249592
-82.78222	28.006112	6.639593
-82.78222	28.005834	6.969593
-82.78222	28.005557	6.959592
-82.78222	28.005279	7.099593
-82.78222	28.005001	7.069592
-82.78222	28.004723	7.149592
-82.78222	28.004445	7.04337
-82.78222	28.004168	6.62337
-82.78222	28.00389	6.44337
-82.78222	28.003612	6.38337
-82.78222	28.003334	5.95337
-82.78222	28.003057	6.09337
-82.78222	28.002779	6.24337
-82.78222	28.002501	6.11337
-82.78222	28.002223	6.469562
-82.781942	28.02389	5.2843
-82.781942	28.023612	5.6143
-82.781942	28.023334	5.7743
-82.781942	28.023057	5.9743
-82.781942	28.022779	6.1543
-82.781942	28.022501	6.5043
-82.781942	28.022223	6.514244
-82.781942	28.021945	6.934244
-82.781942	28.021668	7.204244
-82.781942	28.02139	7.414244
-82.781942	28.021112	7.564244
-82.781942	28.020834	7.554244
-82.781942	28.020557	7.514244
-82.781942	28.020279	8.194244
-82.781942	28.020001	9.248838
-82.781942	28.019723	9.848839
-82.781942	28.019445	10.158838
-82.781942	28.019168	10.298839
-82.781942	28.01889	10.308839
-82.781942	28.018612	10.588839
-82.781942	28.018334	10.988838
-82.781942	28.018057	11.408838
-82.781942	28.017779	11.314384
-82.781942	28.017501	11.274384
-82.781942	28.017223	11.364384
-82.781942	28.016945	10.614384
-82.781942	28.016668	9.874384
-82.781942	28.01639	9.804384
-82.781942	28.016112	9.844384
-82.781942	28.015834	10.534384
-82.781942	28.015557	10.616591
-82.781942	28.015279	10.516591
-82.781942	28.015001	10.466592
-82.781942	28.014723	10.576591
-82.781942	28.014445	10.616591
-82.781942	28.014168	10.696591
-82.781942	28.01389	10.896591
-82.781942	28.013612	11.126592
-82.781942	28.013334	11.410277
-82.781942	28.013057	11.720278
-82.781942	28.012779	12.110278
-82.781942	28.012501	12.220278
-82.781942	28.012223	12.180278
-82.781942	28.011945	12.180278
-82.781942	28.011668	12.070277
-82.781942	28.01139	11.690278
-82.781942	28.011112	11.3266
-82.781942	28.010834	10.3966
-82.781942	28.010557	8.8966
-82.781942	28.010279	8.2966
-82.781942	28.010001	7.6866
-82.781942	28.009723	7.1766
-82.781942	28.009445	6.8666
-82.781942	28.009168	6.6466
-82.781942	28.00889	6.645137
-82.781942	28.008612	6.955137
-82.781942	28.008334	6.835137
-82.781942	28.008057	6.735137
-82.781942	28.007779	6.685137
-82.781942	28.007501	6.525137
-82.781942	28.007223	6.645137
-82.781942	28.006945	6.545137
-82.781942	28.006668	6.519592
-82.781942	28.00639	6.599593
-82.781942	28.006112	6.619593
-82.781942	28.005834	7.039592
-82.781942	28.005557	6.789592
-82.781942	28.005279	6.949593
-82.781942	28.005001	6.639593
-82.781942	28.004723	6.569592
-82.781942	28.004445	6.39337
-82.781942	28.004168	5.97337
-82.781942	28.00389	5.92337
-82.781942	28.003612	5.74337
-82.781942	28.003334	5.71337
-82.781942	28.003057	5.98337
-82.781942	28.002779	5.67337
-82.781942	28.002501	5.83337
-82.781942	28.002223	6.239562
-82.781664	28.02389	5.9343
-82.781664	28.023612	5.9343
-82.781664	28.023334	5.9443
-82.781664	28.023057	6.0043
-82.781664	28.022779	6.0843
-82.781664	28.022501	6.1543
-82.781664	28.022223	6.404244
-82.781664	28.021945	6.864244
-82.781664	28.021668	7.204244
-82.781664	28.02139	7.264244
-82.781664	28.021112	7.414244
-82.781664	28.020834	7.374244
-82.781664	28.020557	7.474244
-82.781664	28.020279	7.944244
-82.781664	28.020001	8.678839
-82.781664	28.019723	9.148839
-82.781664	28.019445	9.528838
-82.781664	28.019168	10.278838
-82.781664	28.01889	10.938839
-82.781664	28.018612	11.208838
-82.781664	28.018334	11.358839
-82.781664	28.018057	11.648839
-82.781664	28.017779	11.654384
-82.781664	28.017501	11.694384
-82.781664	28.017223	11.854383
-82.781664	28.016945	11.134384
-82.781664	28.016668	10.464384
-82.781664	28.01639	10.484384
-82.781664	28.016112	10.604383
-82.781664	28.015834	10.884384
-82.781664	28.015557	10.596592
-82.781664	28.015279	10.636592
-82.781664	28.015001	10.586592
-82.781664	28.014723	10.626592
-82.781664	28.014445	10.836592
-82.781664	28.014168	11.056591
-82.781664	28.01389	11.296592
-82.781664	28.013612	11.226591
-82.781664	28.013334	11.630278
-82.781664	28.013057	11.770278
-82.781664	28.012779	12.020278
-82.781664	28.012501	12.190278
-82.781664	28.012223	12.380278
-82.781664	28.011945	12.300278
-82.781664	28.011668	12.380278
-82.781664	28.01139	11.930278
-82.781664	28.011112	11.5666
-82.781664	28.010834	10.5966
-82.781664	28.010557	8.9166
-82.781664	28.010279	8.3466
-82.781664	28.010001	7.7766
-82.781664	28.009723	7.2766
-82.781664	28.009445	7.1266
-82.781664	28.009168	6.7066
-82.781664	28.00889	6.395137
-82.781664	28.008612	6.525137
-82.781664	28.008334	6.485137
-82.781664	28.008057	6.595137
-82.781664	28.007779	6.425137
-82.781664	28.007501	6.385137
-82.781664	28.007223	6.325137
-82.781664	28.006945	6.165137
-82.781664	28.006668	5.979592
-82.781664	28.00639	6.119593
-82.781664	28.006112	6.279593
-82.781664	28.005834	6.489593
-82.781664	28.005557	6.359592
-82.781664	28.005279	6.399592
-82.781664	28.005001	6.289592
-82.781664	28.004723	6.109592
-82.781664	28.004445	5.84337
-82.781664	28.004168	5.56337
-82.781664	28.00389	5.68337
-82.781664	28.003612	5.46337
-82.781664	28.003334	5.28337
-82.781664	28.003057	5.48337
-82.781664	28.002779	5.46337
-82.781664	28.002501	5.52337
-82.781664	28.002223	6.049562
-82.781387	28.02389	5.9843
-82.781387	28.023612	6.1143
-82.781387	28.023334	6.0043
-82.781387	28.023057	6.2843
-82.781387	28.022779	6.2443
-82.781387	28.022501	6.1643
-82.781387	28.022223	6.164244
-82.781387	28.021945	6.364244
-82.781387	28.021668	6.734244
-82.781387	28.02139	6.894244
-82.781387	28.021112	7.244244
-82.781387	28.020834	7.154244
-82.781387	28.020557	7.194244
-82.781387	28.020279	7.404244
-82.781387	28.020001	8.018839
-82.781387	28.019723	8.558839
-82.781387	28.019445	9.418839
-82.781387	28.019168	10.478839
-82.781387	28.01889	11.068839
-82.781387	28.018612	11.468839
-82.781387	28.018334	11.578838
-82.781387	28.018057	11.728839
-82.781387	28.017779	11.954384
-82.781387	28.017501	12.024384
-82.781387	28.017223	12.014384
-82.781387	28.016945	11.774384
-82.781387	28.016668	11.454384
-82.781387	28.01639	11.204384
-82.781387	28.016112	11.244384
-82.781387	28.015834	10.774384
-82.781387	28.015557	10.826591
-82.781387	28.015279	10.886592
-82.781387	28.015001	10.856591
-82.781387	28.014723	10.836592
-82.781387	28.014445	11.056591
-82.781387	28.014168	11.296592
-82.781387	28.01389	11.546592
-82.781387	28.013612	11.406591
-82.781387	28.013334	11.990277
-82.781387	28.013057	12.140278
-82.781387	28.012779	12.410277
-82.781387	28.012501	12.450277
-82.781387	28.012223	12.430278
-82.781387	28.011945	12.450277
-82.781387	28.011668	12.440278
-82.781387	28.01139	11.940278
-82.781387	28.011112	11.5966
-82.781387	28.010834	10.4566
-82.781387	28.010557	8.6166
-82.781387	28.010279	7.9666
-82.781387	28.010001	7.6266
-82.781387	28.009723	7.1866
-82.781387	28.009445	7.1366
-82.781387	28.009168	6.8066
-82.781387	28.00889	6.155137
-82.781387	28.008612	6.265137
-82.781387	28.008334	6.055137
-82.781387	28.008057	6.095137
-82.781387	28.007779	6.095137
-82.781387	28.007501	5.935137
-82.781387	28.007223	5.915137
-82.781387	28.006945	5.765137
-82.781387	28.006668	5.849593
-82.781387	28.00639	6.109592
-82.781387	28.006112	6.019592
-82.781387	28.005834	5.979592
-82.781387	28.005557	6.149592
-82.781387	28.005279	6.099593
-82.781387	28.005001	6.079592
-82.781387	28.004723	6.179593
-82.781387	28.004445	5.90337
-82.781387	28.004168	5.50337
-82.781387	28.00389	5.55337
-82.781387	28.003612	4.83337
-82.781387	28.003334	4.99337
-82.781387	28.003057	4.75337
-82.781387	28.002779	4.85337
-82.781387	28.002501	5.40337
-82.781387	28.002223	5.969562
-82.781109	28.02389	6.0043
-82.781109	28.023612	6.2543
-82.781109	28.023334	5.9543
-82.781109	28.023057	6.5343
-82.781109	28.022779	6.3343
-82.781109	28.022501	5.9943
-82.781109	28.022223	6.184244
-82.781109	28.021945	6.104244
-82.781109	28.021668	6.534244
-82.781109	28.02139	6.654244
-82.781109	28.021112	6.844244
-82.781109	28.020834	6.994244
-82.781109	28.020557	7.034244
-82.781109	28.020279	7.154244
-82.781109	28.020001	7.518838
-82.781109	28.019723	8.128839
-82.781109	28.019445	8.928839
-82.781109	28.019168	9.888839
-82.781109	28.01889	10.748838
-82.781109	28.018612	11.428839
-82.781109	28.018334	11.738838
-82.781109	28.018057	11.928839
-82.781109	28.017779	12.084384
-82.781109	28.017501	12.184384
-82.781109	28.017223	12.194384
-82.781109	28.016945	12.104383
-82.781109	28.016668	11.924384
-82.781109	28.01639	11.944384
-82.781109	28.016112	11.584384
-82.781109	28.015834	10.874384
-82.781109	28.015557	10.946591
-82.781109	28.015279	10.976591
-82.781109	28.015001	10.946591
-82.781109	28.014723	10.796592
-82.781109	28.014445	10.846592
-82.781109	28.014168	11.116591
-82.781109	28.01389	11.456592
-82.781109	28.013612	11.576591
-82.781109	28.013334	12.170278
-82.781109	28.013057	12.480278
-82.781109	28.012779	12.620277
-82.781109	28.012501	12.510278
-82.781109	28.012223	12.590278
-82.781109	28.011945	12.650278
-82.781109	28.011668	12.380278
-82.781109	28.01139	11.810278
-82.781109	28.011112	11.2866
-82.781109	28.010834	10.1366
-82.781109	28.010557	8.4166
-82.781109	28.010279	7.8966
-82.781109	28.010001	7.3066
-82.781109	28.009723	6.9466
-82.781109	28.009445	7.0666
-82.781109	28.009168	6.7566
-82.781109	28.00889	6.305137
-82.781109	28.008612	6.205137
-82.781109	28.008334	6.045137
-82.781109	28.008057	5.875137
-82.781109	28.007779	5.545137
-82.781109	28.007501	5.855137
-82.781109	28.007223	5.855137
-82.781109	28.006945	5.775137
-82.781109	28.006668	5.599593
-82.781109	28.00639	5.819592
-82.781109	28.006112	5.839592
-82.781109	28.005834	5.839592
-82.781109	28.005557	5.849593
-82.781109	28.005279	5.849593
-82.781109	28.005001	5.889593
-82.781109	28.004723	6.209592
-82.781109	28.004445	5.99337
-82.781109	28.004168	5.51337
-82.781109	28.00389	5.54337
-82.781109	28.003612	4.66337
-82.781109	28.003334	4.74337
-82.781109	28.003057	4.65337
-82.781109	28.002779	4.64337
-82.781109	28.002501	5.33337
-82.781109	28.002223	5.929562
-82.780831	28.02389	6.0843
-82.780831	28.023612	6.3643
-82.780831	28.023334	5.9743
-82.780831	28.023057	6.3043
-82.780831	28.022779	6.1443
-82.780831	28.022501	6.0643
-82.780831	28.022223	6.074244
-82.780831	28.021945	6.144244
-82.780831	28.021668	6.214244
-82.780831	28.02139	6.444244
-82.780831	28.021112	6.854244
-82.780831	28.020834	7.074244
-82.780831	28.020557	7.034244
-82.780831	28.020279	6.774244
-82.780831	28.020001	6.838839
-82.780831	28.019723	7.608839
-82.780831	28.019445	8.348839
-82.780831	28.019168	9.218839
-82.780831	28.01889	10.098839
-82.780831	28.018612	11.028838
-82.780831	28.018334	11.588839
-82.780831	28.018057	11.838839
-82.780831	28.017779	11.924384
-82.780831	28.017501	12.144383
-82.780831	28.017223	12.264384
-82.780831	28.016945	12.114384
-82.780831	28.016668	12.304384
-82.780831	28.01639	12.274384
-82.780831	28.016112	11.874384
-82.780831	28.015834	11.024384
-82.780831	28.015557	10.936591
-82.780831	28.015279	10.936591
-82.780831	28.015001	10.986591
-82.780831	28.014723	10.896591
-82.780831	28.014445	10.726591
-82.780831	28.014168	10.446591
-82.780831	28.01389	9.366591
-82.780831	28.013612	11.286592
-82.780831	28.013334	12.040277
-82.780831	28.013057	12.470278
-82.780831	28.012779	12.590278
-82.780831	28.012501	12.550278
-82.780831	28.012223	12.440278
-82.780831	28.011945	12.520278
-82.780831	28.011668	12.230278
-82.780831	28.01139	11.700277
-82.780831	28.011112	11.0866
-82.780831	28.010834	9.7266
-82.780831	28.010557	8.2366
-82.780831	28.010279	7.6966
-82.780831	28.010001	7.1966
-82.780831	28.009723	6.7866
-82.780831	28.009445	6.7766
-82.780831	28.009168	6.7866
-82.780831	28.00889	6.435137
-82.780831	28.008612	5.865137
-82.780831	28.008334	5.605137
-82.780831	28.008057	5.505137
-82.780831	28.007779	5.465137
-82.780831	28.007501	5.495137
-82.780831	28.007223	5.505137
-82.780831	28.006945	5.425137
-82.780831	28.006668	5.319592
-82.780831	28.00639	5.799592
-82.780831	28.006112	5.719593
-82.780831	28.005834	5.779593
-82.780831	28.005557	5.769592
-82.780831	28.005279	5.739593
-82.780831	28.005001	5.839592
-82.780831	28.004723	6.059592
-82.780831	28.004445	5.89337
-82.780831	28.004168	5.52337
-82.780831	28.00389	5.69337
-82.780831	28.003612	4.64337
-82.780831	28.003334	4.71337
-82.780831	28.003057	4.68337
-82.780831	28.002779	4.72337
-82.780831	28.002501	5.37337
-82.780831	28.002223	5.439562
-82.780553	28.02389	6.2343
-82.780553	28.023612	6.0343
-82.780553	28.023334	5.6743
-82.780553	28.023057	5.8943
-82.780553	28.022779	6.2343
-82.780553	28.022501	6.4243
-82.780553	28.022223	5.944244
-82.780553	28.021945	5.794244
-82.780553	28.021668	5.784244
-82.780553	28.02139	6.334244
-82.780553	28.021112	6.764244
-82.780553	28.020834	6.894244
-82.780553	28.020557	6.854244
-82.780553	28.020279	6.494244
-82.780553	28.020001	6.548839
-82.780553	28.019723	6.998838
-82.780553	28.019445	7.988839
-82.780553	28.019168	8.868838
-82.780553	28.01889	9.948838
-82.780553	28.018612	10.918839
-82.780553	28.018334	11.458838
-82.780553	28.018057	11.868838
-82.780553	28.017779	12.024384
-82.780553	28.017501	12.044384
-82.780553	28.017223	12.024384
-82.780553	28.016945	11.894383
-82.780553	28.016668	12.304384
-82.780553	28.01639	12.464384
-82.780553	28.016112	12.124384
-82.780553	28.015834	11.184384
-82.780553	28.015557	10.886592
-82.780553	28.015279	10.796592
-82.780553	28.015001	10.916592
-82.780553	28.014723	10.706592
-82.780553	28.014445	10.876592
-82.780553	28.014168	10.176592
-82.780553	28.01389	7.096591
-82.780553	28.013612	10.596592
-82.780553	28.013334	11.530277
-82.780553	28.013057	12.020278
-82.780553	28.012779	12.130278
-82.780553	28.012501	12.180278
-82.780553	28.012223	12.210278
-82.780553	28.011945	12.360278
-82.780553	28.011668	12.050278
-82.780553	28.01139	11.390278
-82.780553	28.011112	10.5466
-82.780553	28.010834	9.3766
-82.780553	28.010557	7.9866
-82.780553	28.010279	7.5266
-82.780553	28.010001	6.9566
-82.780553	28.009723	6.5366
-82.780553	28.009445	6.5666
-82.780553	28.009168	6.5766
-82.780553	28.00889	6.445137
-82.780553	28.008612	5.695137
-82.780553	28.008334	5.415137
-82.780553	28.008057	5.555137
-82.780553	28.007779	5.585137
-82.780553	28.007501	5.695137
-82.780553	28.007223	5.535137
-82.780553	28.006945	5.565137
-82.780553	28.006668	5.089592
-82.780553	28.00639	5.479592
-82.780553	28.006112	5.509593
-82.780553	28.005834	5.569592
-82.780553	28.005557	5.629592
-82.780553	28.005279	5.659593
-82.780553	28.005001	5.719593
-82.780553	28.004723	5.849593
-82.780553	28.004445	5.73337
-82.780553	28.004168	5.67337
-82.780553	28.00389	5.89337
-82.780553	28.003612	5.19337
-82.780553	28.003334	5.04337
-82.780553	28.003057	5.13337
-82.780553	28.002779	5.37337
-82.780553	28.002501	5.48337
-82.780553	28.002223	5.449562
-82.780275	28.02389	6.0643
-82.780275	28.023612	5.9743
-82.780275	28.023334	5.6343
-82.780275	28.023057	5.9943
-82.780275	28.022779	6.4243
-82.780275	28.022501	6.4343
-82.780275	28.022223	6.244244
-82.780275	28.021945	5.874244
-82.780275	28.021668	5.864244
-82.780275	28.02139	6.274244
-82.780275	28.021112	6.484244
-82.780275	28.020834	6.534244
-82.780275	28.020557	6.514244
-82.780275	28.020279	6.454244
-82.780275	28.020001	6.598839
-82.780275	28.019723	6.858839
-82.780275	28.019445	7.728838
-82.780275	28.019168	8.778838
-82.780275	28.01889	9.578838
-82.780275	28.018612	10.628839
-82.780275	28.018334	11.228839
-82.780275	28.018057	11.798839
-82.780275	28.017779	12.024384
-82.780275	28.017501	11.994384
-82.780275	28.017223	11.524384
-82.780275	28.016945	11.684384
-82.780275	28.016668	12.004384
-82.780275	28.01639	12.414384
-82.780275	28.016112	12.104383
-82.780275	28.015834	11.504384
-82.780275	28.015557	11.156591
-82.780275	28.015279	10.916592
-82.780275	28.015001	10.876592
-82.780275	28.014723	10.686591
-82.780275	28.014445	10.886592
-82.780275	28.014168	10.766591
-82.780275	28.01389	8.266591
-82.780275	28.013612	9.846592
-82.780275	28.013334	11.000278
-82.780275	28.013057	11.590278
-82.780275	28.012779	11.780277
-82.780275	28.012501	11.860278
-82.780275	28.012223	11.940278
-82.780275	28.011945	12.110278
-82.780275	28.011668	11.840278
-82.780275	28.01139	10.840278
-82.780275	28.011112	9.9266
-82.780275	28.010834	8.7866
-82.780275	28.010557	7.6966
-82.780275	28.010279	7.3566
-82.780275	28.010001	6.9166
-82.780275	28.009723	6.4066
-82.780275	28.009445	6.2966
-82.780275	28.009168	6.2766
-82.780275	28.00889	6.245137
-82.780275	28.008612	5.985137
-82.780275	28.008334	5.895137
-82.780275	28.008057	5.935137
-82.780275	28.007779	5.735137
-82.780275	28.007501	5.685137
-82.780275	28.007223	5.625137
-82.780275	28.006945	5.635137
-82.780275	28.006668	5.969593
-82.780275	28.00639	6.189592
-82.780275	28.006112	5.859592
-82.780275	28.005834	5.829592
-82.780275	28.005557	6.129592
-82.780275	28.005279	6.129592
-82.780275	28.005001	5.899592
-82.780275	28.004723	5.909593
-82.780275	28.004445	5.88337
-82.780275	28.004168	5.89337
-82.780275	28.00389	5.73337
-82.780275	28.003612	5.62337
-82.780275	28.003334	5.72337
-82.780275	28.003057	5.65337
-82.780275	28.002779	5.61337
-82.780275	28.002501	5.58337
-82.780275	28.002223	5.829562
-82.779998	28.02389	6.06003
-82.779998	28.023612	6.09003
-82.779998	28.023334	5.63003
-82.779998	28.023057	5.88003
-82.779998	28.022779	6.10003
-82.779998	28.022501	6.16003
-82.779998	28.022223	6.226418
-82.779998	28.021945	6.106417
-82.779998	28.021668	6.016418
-82.779998	28.02139	6.096417
-82.779998	28.021112	6.326417
-82.779998	28.020834	6.436418
-82.779998	28.020557	6.546417
-82.779998	28.020279	6.546417
-82.779998	28.020001	6.753806
-82.779998	28.019723	7.163806
-82.779998	28.019445	7.743806
-82.779998	28.019168	8.673806
-82.779998	28.01889	9.433806
-82.779998	28.018612	10.303806
-82.779998	28.018334	11.113807
-82.779998	28.018057	11.773807
-82.779998	28.017779	12.078667
-82.779998	28.017501	11.908667
-82.779998	28.017223	11.188667
-82.779998	28.016945	11.448667
-82.779998	28.016668	11.908667
-82.779998	28.01639	12.278666
-82.779998	28.016112	12.048667
